# 3D point list with one line of data per point:
#   POINT3D_ID, X, Y, Z, R, G, B, ERROR, TRACK[] as (IMAGE_ID, POINT2D_IDX)
# Number of points: 381, mean track length: 4.6974670457482555
4452 -0.81923484140050351 -1.4569240072497314 14.502420764304098 156 137 91 0.0070468339804111348 16 5499 4 4194
4756 -5.1885396510966428 1.5748547869856571 10.696956955934096 144 134 125 1.207405708043968 3 7380 5 8122 16 7608 4 6090 1 3982
4453 -4.5489450116136352 -0.12977356497176507 9.7279840020261616 196 202 224 1.2432166907506901 5 5711 4 4197 13 3299
5265 -0.37639068747584992 2.9039441291387385 9.6544860904449266 122 121 126 0.78830938470044865 3 3219 16 5231 1 1903 2 3535
4454 -0.82220162745530079 -1.2990260632635755 14.482317769611214 190 188 177 0.12812974877291364 3 5357 16 5506 4 4205 2 5908 7 4751
7830 5.1710080362248076 4.4281065570316329 24.025261537347415 65 48 41 0.51713843814122595 13 4356 10 2712 9 1486
4455 -4.2265823087631285 -0.089220297496723916 14.236802713312603 174 157 128 1.0528731302713883 3 5435 4 4232 1 2128 11 338 12 252
7323 -3.8611164054590401 1.1192112116126949 11.472181687830142 208 195 178 1.4178821872622454 2 7418 7 6488 12 3074
4456 -4.2543886818297709 0.33987802687451446 10.484083742969059 195 182 163 0.95706734278784178 3 6611 16 6800 4 4267 1 3199 13 3345
4760 1.8780357719291456 0.22505894364582429 13.454135934047059 35 29 23 1.154492140566155 6 8167 4 6104 13 4527 10 3131
4457 -6.4927335803781538 0.87430781702908633 12.117577228753742 152 147 145 0.55063310393897291 5 6965 4 4277 2 7385 7 5892
4458 -3.8634281701335405 0.4165556033040298 12.76380133129172 112 107 104 0.30269996657407122 5 5811 4 4287 1 2176
5786 4.6931576088950928 -1.155318271466963 16.000710426023169 209 198 192 1.6569722050986944 3 8562 16 8905 1 5282
4459 2.2310944641284665 -0.9762756515678932 16.155285872558007 29 20 14 0.9744022041349798 16 3611 4 4294
5279 -4.4249849943984216 -0.1131263785786711 9.414251510805018 200 208 228 0.95179592938213686 16 6761 1 2093 3 7202
4460 2.1769163956285151 -0.95340127834632182 16.172827278159552 192 168 140 1.7534787002042804 6 6756 4 4298 1 3168
4764 -7.1013679398993297 2.4386963622738516 12.26261760431885 184 187 192 1.2690070581023987 16 8405 4 6117 13 4774
4461 -6.5139399089916292 1.1281911918190584 11.628209279056136 175 174 180 1.1971797886867572 3 5633 16 5816 4 4300 1 2236 2 7439 11 2849 13 333 12 1848
4462 -3.9820958665917066 0.68352033664704348 12.421438053994745 71 70 68 0.36461915601875655 3 6643 16 6831 4 4328
4832 -4.2615012983450464 1.9245163613250231 9.8959097262568818 208 200 198 1.4668318689201982 3 8141 16 8398 4 6421 1 4744 2 9022 11 5659 13 4796 7 7407 12 4472
4465 -4.080295906293812 0.72709815246041465 12.403802334654982 98 96 100 0.67941550850358734 5 5844 4 4335 13 2438
7405 -7.3493791519810259 -0.6752352877298009 11.271413986620761 215 216 220 1.7047487606979008 1 5158 7 7515 12 5278 10 4735 9 4775
4466 -4.1969918064113214 0.76163066932112011 12.374728368963003 34 28 28 1.3303524824447233 3 6654 5 5846 16 6840 4 4338 1 3236 2 7352 9 517
5858 -5.4036647865080605 0.48564012260746869 10.988913670221837 60 55 54 1.7508220724054322 16 701 2 761 7 4929
4467 -2.1420140196115001 0.29527220995655418 13.068466442054222 187 205 241 0.73238183021772463 5 7020 4 4340 13 2459
5351 9.2635596789423129 1.7758749317712936 16.090866630803148 32 30 36 1.0505801432970807 16 4111 1 2631 11 3446 9 1108
4468 -0.27688601906078958 -0.10734520117816418 14.153267274973835 26 21 25 0.52751313410217338 5 5875 16 5594 4 4346 2 5992 13 2481
4836 -4.0709042624407008 1.9587563644437564 9.7895754417083847 206 197 198 1.4679204444361469 5 8495 4 6433 1 4748 13 4802 10 4275 9 4181
4469 -1.9313976442542025 0.3093720291964972 12.91767469706503 212 210 215 0.75096106053924605 3 5487 5 3941 4 4348 1 3218 11 4041
5345 -4.4767644816518821 2.2066803382260174 9.4854004468943671 214 212 216 0.37694411184001653 3 6123 16 6229 1 2617
4470 2.5545089375205605 -0.71535373040947858 15.852249965070158 187 172 151 1.5468769379608127 4 4349 2 5941 13 3460 12 1821 10 2164 9 2208 14 7811
7910 -0.80062531786941393 1.890261795876834 10.300549184730125 185 178 167 0.84362062197661158 13 4871 10 3886 9 3794
4471 -1.9328280304238326 0.34117906840287487 13.533593737637853 132 127 121 0.89592975268469899 5 5876 4 4353 13 2473 10 559 9 502
7403 0.10038645833979216 1.8080292646747131 10.264522447001267 156 140 114 0.790696108157943 2 8985 7 7484 12 4881
4472 -2.335940009696762 0.44710547810947288 13.257395588407739 196 187 175 0.95741532942476715 16 5668 4 4357 3 5508 11 474
4840 5.6002529690970544 0.69566799876541363 14.151769043306624 148 146 151 1.7365295914093948 8 9625 4 6460 1 4694 11 5347
4473 -2.4518811472370228 0.47558965337274256 13.229944611997983 144 125 97 0.48692465837034038 5 7034 4 4359 13 3408
5866 -0.5990008671339947 1.032992135766271 11.74101373552695 82 72 62 0.44034245206743816 3 932 2 961
4475 -4.2338319376767153 0.95975864545510114 10.119301203980834 190 190 201 1.493410484651321 3 5625 16 6887 4 4378 1 2256 11 4065 13 2437
5359 -7.0867083171241836 3.1104161670042005 13.201277529741935 201 198 205 0.99662092999463958 3 6144 1 2657
4476 -3.8837777725886924 0.97856242907419555 11.840264696029214 190 183 170 0.67718637718300612 3 5597 16 5773 4 4384 1 2257 11 2884 13 2464
4844 -1.5675064516320489 2.0147193784042967 9.9318880759779429 195 183 175 0.65639311318780491 5 8551 4 6484
4477 -4.3171065707842864 1.0954133597756679 11.803122912091682 156 138 113 1.6379381815205616 3 5627 5 5906 8 6717 4 4387 13 2461
5353 1.0589413730142767 1.8225022601556775 10.302763759508485 189 176 157 0.22092777063154534 3 4307 16 4392 1 2635
4478 -7.1145784860863168 1.8144941841968889 12.232109582710549 167 167 177 1.3931092020185669 3 6812 16 6995 2 7571 11 4131 13 3394 10 825
4480 -5.3200495348657348 1.5315849747526149 10.818637584889524 188 177 171 1.3140741229455968 5 7071 8 8090 4 4411 1 3333 11 2956 13 2470
5142 -4.1989961204098902 2.4262836277041995 9.1173143007374104 209 212 221 0.39082986018487231 16 5038 1 1398 11 1480
4481 -5.4757268397434187 1.5963822627379429 10.735367993640132 186 177 172 1.1740510852705315 3 6804 4 4418 13 3413
5651 -1.6196970049127783 1.6893554996066971 10.664012315895329 191 176 156 1.0046964939658998 3 7815 16 8071 1 4442 2 8635
4482 -5.4757268397434187 1.5963822627379429 10.735367993640132 186 177 172 1.1740510852705315 3 6803 4 4419 13 3414
4629 -6.8326118632033008 2.5543169263145842 12.514435900356858 194 195 205 1.8676005893118184 3 7472 16 7705 4 5321 13 4109 9 3295 1 4077
4484 -5.6619482291826682 1.6456351648542533 10.645333238062719 192 191 196 0.63990362601430006 3 6821 16 7001 4 4422 1 3362 10 738
4485 -3.9763363678275314 1.2901586661840374 11.48877607460895 190 185 181 1.5424140859733513 3 6739 4 4423 1 2307
7703 0.18765557020816501 -4.6555942650183102 16.043425069934646 178 160 140 1.6394074552149964 1 78 9 231 10 257
4486 -5.5723182258333308 1.6400417030015488 10.60212701489923 179 177 180 1.1305687043468402 3 6819 5 5945 16 7002 4 4426 2 7575 11 4138 13 2471 7 6603
5140 -2.2406374250866885 2.2780618377083526 9.4103103037114213 105 95 93 0.36329901778321005 3 4739 16 4810 1 1396 2 5294
4487 -7.1920278385496621 2.1816424404777361 12.384842841475256 171 171 181 0.6851312646821125 4 4438 1 3421 13 2484
4633 -3.4804517564013491 1.6208745965889377 10.087541763632649 109 114 110 1.001353707634093 5 7161 4 5336 1 3418 11 3044 13 2580
4488 -5.172150124272993 1.5951959599767656 10.447374834079865 161 143 133 1.1951951772869194 3 5812 4 4439 1 2365 13 526
5150 -4.0625779865602567 2.4278323462143563 9.0791909241137105 138 133 135 0.6367302137839429 3 4957 16 5050 1 1415
4489 -5.1072431004929824 1.6028620519384031 10.46136008518236 171 167 167 0.5544640569980932 5 5970 16 6996 4 4447
5659 -4.4860116508983827 2.2169982819368279 9.4434833347684624 214 215 219 0.90651313979859305 3 7913 16 8165 1 4490 11 4935
4490 -3.9144926117012724 1.3707458722186736 11.225839628235891 193 181 168 0.43221452753352047 16 5875 4 4449 1 2329
4637 -4.0832324883151276 1.8752598143486408 9.945714704697405 133 123 116 0.84774581025466733 3 7439 16 7674 4 5351 1 4061
7186 -3.6118352247424346 1.3560616174231603 11.077073798911771 130 121 114 1.3375760313485048 8 6801 4 3079 13 624 5 4143 16 1232 3 1160 2 4468 7 5161
4493 -6.8913077934175782 2.1661534530408946 12.411379104008052 129 124 128 1.4533587017102298 16 6045 4 4455 2 6581 1 2454 13 2493 3 5892
5148 -7.0631506322783482 3.40222910206933 13.111563941869692 163 155 158 1.2441306332192468 3 2736 16 4986 1 1410
4495 -4.9133739638370777 1.6226915914535429 10.594069390272949 198 196 199 1.2108437727047054 3 5815 16 5970 4 4464 1 2380 11 2984 13 2494
4705 -6.9134496690605181 2.8322945697500366 12.598538799337518 178 178 180 1.9284579053324158 4 5803 11 5395 13 4130 16 8158 10 3923 9 3833 1 4486
5222 -5.4524030355126385 3.2255630344122141 10.935615547734594 86 88 101 1.4596118246200322 3 5195 16 5248 1 1619
4497 -3.3867183596012724 1.4956643442484727 10.959708670480115 138 122 99 0.41826977391626352 16 5916 4 4494 3 5761 1 756 13 2564
5731 -4.1478140593330792 1.7871799424250017 9.8935527420910621 204 197 191 1.62984573838284 3 8329 16 8614 1 4965
4498 3.7693601481334968 0.057550449015292694 14.343355729897414 199 183 157 1.1650741050428786 3 5465 8 8049 16 5615 4 4495 1 3240
4499 -2.7411308670898542 1.3672643087650349 11.109659560952256 199 191 188 0.40284671159193652 3 5726 4 4496 1 2356
4709 -3.9000116990507991 1.8755725897590263 9.7778677125768478 193 206 222 0.93730894436021539 5 7819 16 7679 4 5818 3 7443 11 4879
4500 -2.7411308670898542 1.3672643087650349 11.109659560952256 199 191 188 0.40284671159193652 3 5727 4 4497 1 2357
7783 4.7769612214082375 6.472251887783421 20.196637558212267 39 23 18 1.8093227453208958 2 5677 10 1888 9 2904
4502 -2.6005658401197285 1.4132196625744902 11.078541652081933 190 181 172 0.51170631062454763 3 5732 4 4517 16 5885 1 2371 13 2595
5220 -0.81124688534254175 2.4027859752835745 9.2027158461672567 181 172 164 0.47392174757635575 3 4891 16 4953 1 1615 2 5379
4503 -6.8790907388615121 2.644668988438184 12.5139154876783 194 194 207 1.7650090005109034 16 7109 4 4530 1 3509 7 6681 9 2510 2 8334
4713 -4.6502182639667025 2.1219835817204857 9.6312474688899155 187 186 193 0.72105673004715298 3 7895 16 8154 4 5835 1 4463 11 5369
4504 -1.2682283335926201 1.2473077485727315 11.648176854122331 185 173 159 1.0761458796587338 16 5830 4 4539 2 6234 12 1985 7 5963
5230 -0.38986970815742084 2.4360389966168481 9.3833259580870649 140 135 131 0.38477461502567073 3 4878 16 4938 1 1638
4505 -2.8811613889726191 1.5806433853788942 10.903085754023184 138 121 103 0.3683096060902889 5 7173 4 4543 13 2606
5739 -0.62506228758691906 2.2415010976216778 9.4564854854029257 181 168 149 0.69819722400643358 3 8364 16 8645 1 5012 2 9228
4506 -2.4585138986116686 1.4988117452937084 11.088934567169025 191 180 174 0.41491720961055006 16 5907 4 4544 3 4074 13 2624
7272 -5.4096716776017599 2.0987834217457597 10.327878578005672 97 83 100 0.98499409534832605 2 2478 7 4474
4507 -2.1196507710223296 1.4374200752009865 11.197511401887791 165 158 152 0.23234402644988394 3 5737 16 6946 4 4546
4717 -3.6738803838020591 2.0500037101548383 9.60548175184603 205 216 233 1.3305790104441533 3 7485 5 7240 16 7715 4 5860 1 4468 13 4154 9 3786 10 3874
4508 -2.1819785007303376 1.4616263190962278 11.178352776421091 169 165 160 1.2490645670235134 16 5898 4 4549 3 4057 2 6329 11 841 7 6025 12 555
7266 -6.8831354901791144 1.9225808826078961 12.267177344240853 165 145 154 0.54502941081208267 1 753 7 4034 12 506
4509 -4.6032962809651758 1.9433617824915703 9.9324862169136434 187 178 174 1.1057889822664759 3 6910 16 7079 4 4560 1 2518
4510 5.3477051971790921 0.052102158130330048 14.414971900028734 148 133 112 0.84033782599370122 3 5470 4 4567 12 466
5228 -3.2635537435166051 2.55172849879748 8.546687035349418 138 123 116 0.34540096923484592 3 5206 1 1632 13 1283
4511 -0.27568164597480549 1.1382492812591827 11.757479476795673 167 147 122 0.6175304511380818 5 6148 4 4569 1 710 3 989 16 4045 2 4303 7 3664
4657 -1.1955978986307874 1.7153809480502467 10.62498519503556 189 175 164 0.40800056981712557 16 7010 4 5425 1 3482
4512 -4.1307665752990932 1.8960013150850525 9.952786047209246 209 200 200 1.0971406788127609 3 5935 4 4577 2 6603 11 3121 7 6179
5174 -3.2114429030150284 2.4274824629760676 8.8220419017246083 115 101 98 0.84991334175409083 3 5015 16 5089 1 1507
4816 -2.1616056842270277 0.5181601170495348 12.749185350424151 194 193 198 0.9554020147544614 6 8332 4 6353 1 4650
4513 -4.1378727248527811 1.9006088272347965 9.9691007231163944 209 200 200 0.68433683480224161 3 5934 5 6117 4 4578 13 736
7389 -2.9629015130155851 1.9434137409202916 10.021932956809527 211 194 176 0.36464087166815112 2 9015 7 7404 12 4863
5683 -7.1433009023393632 1.8101920447274318 12.40736858353605 207 205 208 0.59880280585021317 16 8355 1 4689 13 4743
4514 1.6760840412486817 0.79086300212596128 12.577210384081523 186 171 150 0.27070889629281386 3 3789 16 3912 4 4579
4661 -2.1814073641383018 1.9724434584131534 10.019142042015662 196 183 175 1.08571192867093 6 7589 16 7078 4 5444 1 2586
4516 -1.9249894324467725 1.5279914744533853 11.068138401683488 171 162 155 0.83009658456721358 16 5919 4 4590 3 5777 1 3409 2 6347 7 5229
4820 -5.2264749271067661 1.4862752059560302 10.926200751731219 180 173 167 1.1790748921069807 3 8098 5 8439 16 8345 4 6366 1 4684 11 5625 13 4758
7735 1.6139583316417745 1.1644696185927339 11.861172917564899 196 184 171 0.76155564785643515 13 3610 10 804 9 695
5329 -5.4975564895580682 1.9901699688656216 10.468551293771799 195 197 209 0.7910145990523173 3 5936 16 6083 1 2499
4518 -6.7440463207750794 2.9095142508295213 12.377701224987531 195 196 200 0.94421409252193478 16 6237 4 4599 3 6138
7894 -7.3526668818124463 -0.12304656920736673 10.077754690535127 255 251 255 0.56400264578926695 13 3932 10 3732 9 3664
5172 -0.50439064118393084 2.2481063062145923 9.4681666481777924 116 97 83 0.63186621270213106 3 2343 1 1498 11 1707
4519 -4.4960472357185957 2.0137826024689192 9.6866980089270989 197 186 184 0.63533226479019134 3 6929 16 7103 4 4601 1 3502
7387 -1.6946864408450701 1.4706753846134553 11.373666773125903 201 186 165 2.1803942938584648 2 9175 7 7366 12 5130
4665 -7.0795835024082558 3.9939292617830757 13.30727354860954 193 191 199 0.67846182996338933 4 5486 1 3665
4520 -4.4960472357185957 2.0137826024689192 9.6866980089270989 197 186 184 0.63533226479019134 3 6930 16 7104 4 4602 1 3503
5182 -1.0343312461053662 2.3283862430023929 9.3318055368985657 118 103 100 0.73018158937611355 3 4796 16 4858 1 1526 2 5286
4824 4.7845712533817304 -0.29492618036836027 14.961742528097458 14 12 15 0.90007517470327991 6 8367 4 6386 1 4646
5691 -5.1458211804683343 2.2430261940706084 10.104323874597103 189 193 205 0.6162073686279782 3 8160 16 8429 1 4759
7224 -5.2058722545645946 -1.7744586695542948 11.927909896612571 140 138 126 2.5170668084908248 5 8921 13 5149
5850 -2.7098681239056392 -0.27905603469233953 14.585535168424933 147 131 108 0.42716174734395568 16 382 2 419 3 380
4523 -1.8441993987847503 1.562858488360471 10.982299059111742 187 175 163 0.87667119891323686 3 5790 5 6176 16 5928 4 4612 1 2463 13 2665
5343 -4.4990661555249458 2.1811455859984039 9.5046797991815932 141 135 135 0.39589658563851299 16 6215 1 2609 3 6111
4669 -0.0057869619055022784 1.8173527060434438 10.440575963366799 180 163 143 0.65683119097324916 3 6863 4 5522 2 7554 12 2244
4524 1.1810958277471262 0.98535400419796215 12.192052185182698 178 162 138 0.54891714882366804 3 5605 16 5759 4 4619
7218 6.2172618414099716 3.8449749756402851 25.42001709023986 72 68 64 0.86140292090623771 3 1519 13 1967
4828 -3.5304048922618696 1.4776561498200811 10.89939465618335 183 166 150 1.1300956929806261 16 8344 4 6394 3 7782 1 4392 11 5315
4525 -4.2204890026985566 2.0592604758420689 9.6569832360870205 190 182 179 0.7867079847736056 3 6028 4 4644 1 2568 13 2628
5180 -1.6445436837779031 2.3632777712703632 9.2282056630135614 195 185 176 0.61860071197672062 3 4852 16 4930 1 1520
4527 -6.9383124934710274 3.1471085646953161 12.612646493773777 191 190 194 1.1749539216918463 16 6309 2 7863 4 4648 13 2656 3 6218
4609 -7.4273510948908337 1.8042852498233011 11.995833349299589 180 184 195 1.683674957072633 5 7716 4 5238 13 3389 12 3863 9 696
4528 -3.5055566797832998 1.9012032921559092 9.4862218008813581 103 151 155 0.88924933127463868 3 5960 4 4659 16 6092 1 1030 11 1101 13 831 5 6198
5126 -1.4617046254996378 2.1547055622839029 9.6502451256289312 196 186 177 0.57116154469566693 16 4643 1 1333 3 4583
4529 -3.8409172358747692 2.030365006426861 9.8021131880708552 224 227 247 0.32457137495908034 3 6926 16 7100 4 4663
5635 1.6583914189849926 0.64775489905137462 12.938919349676333 100 79 52 1.0525934638768182 4 6145 1 4363 11 4812 7 6440 2 7314 12 3878
4530 -0.320162707333698 1.3883452073739564 11.325909961974423 112 93 73 0.33396214231690069 16 5872 4 4665 3 4021 1 2433 11 949
4531 -4.3154901551535829 2.1079532700339736 9.5049120097731361 191 183 180 0.85271954680415385 5 6192 16 7119 4 4667
4613 -5.5374757708599871 1.5040780694613483 10.864119706684159 170 162 160 0.61004753418126434 3 6782 4 5255 1 3316
4532 0.7750008264313214 1.1733195336112829 11.636858990621286 137 116 89 0.81268556465037123 16 4058 4 4669 11 912 2 4307 7 3695
7687 1.3225586438050607 -8.3606439265107575 15.022765758689955 176 160 131 0.58794934051720571 13 97 10 95 9 78
4534 -1.330311194190446 1.6117255204409469 10.902896816499915 185 169 156 0.60527372003692026 16 6981 4 4675 7 6053
5124 -0.49251100025603167 2.0680831030144664 9.7654820055476748 187 172 151 0.46502043958048572 3 4512 16 4566 1 1322
4535 1.4008081125404641 1.0879256048807739 11.972000574072229 179 162 138 0.27643156275668473 3 5632 8 8207 4 4677
4617 -3.9791953351003801 1.2371861027237134 11.534996832055731 199 194 191 0.82665229959674269 3 6724 16 6913 4 5266 1 3293 11 4111 13 3427 10 667 9 593
4536 -1.2794042740313825 1.5998801340546633 10.907942515652554 188 175 160 0.58546673649194447 16 5941 4 4679 7 6049
5134 -2.8046459911287647 2.292341764142741 9.2919027234235525 201 188 175 0.48694774033413707 3 4774 16 4854 1 1379
4537 0.83665332159691896 1.1886515630631385 11.597111210658769 184 166 140 0.72499939333633967 3 5664 16 4066 4 4680 1 2401
5643 -1.2528126376249671 1.4648672515181689 11.15791044435781 115 94 79 0.51962643125424346 4 6174 1 4411 11 5341
4538 -5.3467717611258214 2.5366506252353855 10.401528594533225 197 198 218 1.6404594884913482 5 6196 16 7183 4 4682 3 7009 2 8393 11 4339 1 3552 13 3522 10 2496 9 1019
4539 -5.0578120707756691 2.4339085499969797 10.073424916285681 169 172 187 1.1427149431177301 16 7178 4 4687 3 7000 13 3524
4621 -1.6217689729697329 0.88826763053346947 12.167715241625057 13 12 11 1.344901734164794 3 6674 8 8845 16 6858 4 5280
4540 -2.6158359015802697 1.8664335796935936 10.244515545269929 200 191 186 0.99060354941119433 3 5909 8 8327 4 4688 1 2542 11 1138
7170 1.5913044144280115 -2.9080719750892259 18.058826082417898 155 149 135 0.63985437381328891 11 6320 13 5396
4541 -0.95639006750533739 1.5684117962040489 10.976523695068508 186 174 158 0.28787888039865794 3 5794 4 4692 1 3447 11 3143 12 2100
4542 -0.95579061970183998 1.5682486078824351 10.971833564183333 186 174 158 0.34589239354423229 3 5795 4 4693 1 3448 11 3142 5 7260
5132 -1.4424471717355816 2.1853322677889397 9.6319076560089094 187 174 165 0.46116702793267206 16 4678 1 1354 3 4609 2 5105
4543 -4.8977128815742086 2.4056179301839649 9.9415734863233762 181 185 197 1.1598538267500265 16 7180 4 4703 13 2648
5926 -0.46704144556842309 1.9328372653690367 10.224895062046532 114 98 79 0.60965332160783581 3 1819 16 1868 2 1904 7 2410
4689 -7.4513842506229526 1.6621557990069358 11.95865328165463 180 184 193 1.1727091099079605 5 7703 4 5705 13 3381 10 747 9 3183
4544 -4.8977128815742086 2.4056179301839649 9.9415734863233762 181 185 197 1.1598538267500265 16 7179 4 4704 13 2649
6951 10.571979338256831 -0.065775874177951651 14.407382693141228 126 78 73 1.5262156506707776 11 3089 13 3044 12 574
5206 -7.0021071207667287 3.7743572495299307 13.342611597274916 185 184 189 0.35950983164489003 1 1582 16 2950
4545 0.85204896117516982 1.2385652513621483 11.497836816925398 181 163 134 0.36067689552113774 5 6290 6 7046 4 4707 1 2417
5715 -1.4350956444524723 2.4423882716909269 9.0692084879408696 189 176 160 1.347564607426686 3 8201 16 8461 1 4830 11 5452
4546 -3.1366666285951945 2.0044074354925114 9.9093504801234182 190 183 191 1.7842218754988406 3 5976 16 7087 4 4711 11 3222 12 2179
4693 -5.4245872541720432 1.4057320503098096 11.112989032297142 126 116 117 1.188402598374378 3 7354 16 7577 4 5741 1 3301 2 7499
4548 -1.5064068641328645 1.7183393084020115 10.58281165091644 192 179 172 0.29411572122797697 16 5983 4 4713 3 5841
4549 -5.0901597188097405 2.5390846022503455 10.182035112461506 168 171 180 1.6145951905559459 3 7018 16 7207 4 4715 1 3560 11 4970 13 2659 10 2501
7767 -2.5384047508669427 3.2663282149543553 7.8353180344385365 180 187 195 0.17498715554761635 13 1905 10 1377 9 1288
6948 0.71134678034460619 2.1413815253086081 10.253646650772374 182 183 188 1.1945357620024866 14 6438 13 2999 9 1025
4550 -4.0626358998393606 2.1887212469505335 9.5313756173196396 196 186 181 1.2212079239477505 5 6253 4 4716 13 877 3 4641
5925 -0.46757495390144826 1.9304332010700662 10.216135318702912 114 98 79 0.40598127869090717 3 1820 16 1867 2 1903
5204 0.61360768467501703 2.3789565116248914 10.14493227775133 78 76 81 0.75279596918315828 3 4679 1 1580 16 4700 12 1114 2 5067
4551 -3.4764829634497048 2.0601218903599334 9.5604754890438937 196 200 212 0.80774386258165687 3 6041 16 6157 4 4719 13 903
5934 -5.3162913442523623 1.8332883957109349 10.248143519828954 200 199 198 0.91837015662938359 3 1684 16 1813 2 2123
4697 -4.8379392414245954 1.6570173298318556 10.490233002458092 116 114 116 1.0670905403970372 5 7773 16 8075 4 5766 13 4077
4552 -1.8305372849652377 1.8013979479905211 10.411058527130805 194 185 179 0.80520798785403236 3 5881 4 4722 16 6020 1 2540 2 6464
5214 -6.8015393793360062 3.7543498657732677 13.164829077854291 203 202 210 2.0199425621885592 1 1597 16 5171 13 1134 3 5127
4553 -3.9304524518954085 2.204502360913366 9.4886959429340294 191 183 180 0.64772029772862483 3 6976 16 7142 4 4739
6952 10.558908302205312 -0.024751135779653145 14.346365847669608 160 147 133 1.4177698208756493 11 941 13 3049 12 584
5723 -5.911325309096183 0.28143287387405669 11.368055135318318 143 146 153 1.1762503218720681 3 8266 16 8545 1 4902 2 9302 11 6044 10 4195 9 4107
4554 -2.5211752456418837 2.0427517395861776 9.8690232912622005 196 190 187 1.1139444232156315 6 7051 4 4784 1 2613 3 5998 16 6115 11 1299
7977 -3.1605496844005279 3.4840644419690121 8.1264254956493325 195 203 206 0.90497656277527749 13 5109 10 4629 9 4520
7256 -0.84706497678880432 -1.0021695278761886 14.44904708424392 212 220 241 0.96923971577415902 4 4224 7 3137 15 4918
4555 -2.0446583981979023 1.9580502513668387 10.06196239035285 194 186 183 1.2281984458208792 3 5948 16 7074 4 4786 1 3525 2 7630
7970 -2.6593137144737127 3.0709609564877622 7.8358516650445829 207 221 244 0.41624999259672696 13 5098 10 4613 9 4503
4701 -6.7346449357914135 2.4311442130996204 12.359849481647458 192 194 206 1.2649665858545229 16 7698 4 5771 3 7457 13 4093
4556 2.7222543658163896 1.1077962100279048 12.02120524170701 163 147 124 1.3105256406004682 5 4935 4 4788 1 839
7250 -3.736246268598443 -4.3771249020791059 12.864755206860702 0 0 0 0.25746290518595105 2 3746 3 3308
6947 -0.52432409610592101 2.2631273333024318 9.4393598048722804 169 165 164 0.59263525638171577 14 7125 13 2964 15 5629
4557 -2.6233709375567038 2.0772038729888189 9.8253419560130126 202 193 193 0.82387881446892186 3 6016 4 4791 1 2620 11 3283 13 2729
5933 -4.1703493971413108 1.8323233457798227 10.02746715343193 137 123 97 0.3041256941073513 3 1736 16 1847 2 2079
5212 -0.42118925359853976 2.3658512425188247 9.3952466420177512 177 168 160 0.32358005637936288 16 4872 1 1594 2 2788
4559 -2.428360185021027 2.0716381911881654 9.75844426783115 198 193 189 0.16639458708624025 3 6023 4 4811 16 6132
5942 6.3275553021187809 4.3000766624282347 18.109119671526145 52 64 102 1.3871332341656271 16 2312 2 2233 7 4435
4769 -2.964930603070032 1.5676670132384987 10.96329660964561 176 159 133 1.6802574967964967 6 7880 4 6141 13 4516 10 3224
4560 -4.0377709456657627 2.355426551272148 9.0353054451832531 207 198 199 0.47902896555255686 3 6273 16 6356 4 4820
6967 -5.2492234957726316 -1.5103933120039077 11.013644318202751 135 102 70 1.2078455269721227 13 3271 12 2900
5286 -4.6136670617668685 0.5925422781570302 9.8494255734242433 42 41 63 1.6035925197202159 3 5532 16 5701 1 2182 2 7347 12 1809 9 437
4561 -4.0377709456657627 2.355426551272148 9.0353054451832531 207 198 199 0.47902896555255686 3 6272 4 4821 16 6355
4563 -0.59683216519563864 1.7907269290544849 10.453398304243469 190 173 155 0.46212568949353178 3 5875 16 6007 4 4829 2 6437
4773 -1.0940273068542399 1.391436318619429 11.340128361133761 192 177 158 1.0283358446466531 3 7763 16 8031 4 6165 1 4714 2 8588 11 5329 7 6893 12 4448
4564 -3.6892347293316217 2.3438887080105673 9.2263678557405111 196 186 182 0.70319740156079924 3 6232 16 6320 4 4840 1 2709 11 1459
7847 2.3211480353079406 -1.0724340313900194 16.528858540349749 201 191 181 0.6625201602688594 13 4052 10 3080 9 2189
6964 -1.3030922078275211 -7.1503601690660572 13.77655801484852 15 9 11 1.416395573586132 11 3895 13 3258 10 1974 9 104
4566 -7.225330408622554 3.969008915964646 12.833475977562934 122 116 116 1.6592109603631371 5 6368 4 4850 1 3675 13 3605 16 7309
5941 -4.8642507539046234 1.8929650074650659 10.053973460715421 114 107 89 0.61547656528887995 3 1811 16 1915 2 2229 7 2472
5284 -4.6550297817947071 0.42156978959185454 9.8363278537977088 209 200 223 1.8706457995712078 3 5504 16 5672 1 2167 11 2786 13 281
4567 -0.57350862296794536 1.8231106696477259 10.350056748243778 183 170 153 1.1403100638605452 5 6467 4 4853 1 2579 3 5891 11 1297
5950 -1.4404637349284652 2.1466622987841912 9.7261391816391836 208 193 174 0.55096486810837786 5 2794 16 2197 2 2386 3 2147
4777 -3.8634282229053887 2.0474930410564864 9.7652927414275599 127 135 146 1.4674669960736644 3 7879 16 8136 4 6192 1 4462 13 4149 9 3249 10 954
4568 -1.5298869178224679 2.0040789013567788 9.9712515325994335 196 182 173 0.46828422879772441 3 5967 16 6088 4 4861
6968 -0.96300321024218904 -2.5687500629003859 14.467193845112115 19 19 20 0.55296643756666741 1 3072 11 3938 13 3286 12 2913 10 2042 9 2076
5803 0.60879995550883126 1.4591139371777941 11.204561860550108 183 162 130 0.72290523139170415 16 4181 5 4876 3 4060 4 3638 1 949 6 4846 8 5333
4570 -1.6598326331203788 2.0440571530080627 9.9024428584235782 195 184 180 0.55986440097548418 3 4469 4 4872 2 6616
7993 -1.9713335758097918 2.9507561088754262 8.2533256502747641 192 195 200 1.5379919338182313 13 5284 10 4804 9 4821
7336 -3.8804340701721833 1.990260995356524 9.7803287210773764 165 172 183 1.0901485066386525 2 8298 7 6690 12 4491
4571 -3.5223165334498248 2.3649853905417011 9.1173368401014621 191 183 180 1.4379307941856043 3 6263 16 6341 13 1059 11 1495 12 936
7986 -1.0473123802583704 -1.6150314471863307 14.35480755696222 224 229 232 0.3947668681218654 1 5059 13 5161 10 4737 9 4640
4781 -1.0629017774985392 1.5997465141969833 10.919378733738519 186 169 153 1.5285686548151436 3 7799 8 9648 16 8052 4 6205 1 4428 2 8613 11 4885 7 6930 12 3951
7330 -5.8121908830199889 1.4623595881688816 10.94416007236055 155 149 151 0.59319508395092646 3 6774 7 6554 9 600
6963 -1.3523898791794922 -7.2102439228592772 13.791728291832902 136 137 139 1.0705618801331755 11 3894 13 3256 12 1618 10 1973 9 1994
4573 1.8642727064462068 1.4628600851551137 11.253082233917748 174 157 129 0.76071738784803733 3 5749 4 4896 1 3477 8 8999 12 2172
4574 1.8630366281141801 1.4622691309314964 11.255203092740679 174 157 129 0.31989289707161667 3 5748 4 4897 1 3476
5949 0.63019253893843918 2.3568118862374439 10.154354638128735 200 193 185 0.44998803343182453 3 2275 16 2280 2 2367
5292 -6.3737776362982199 0.89026848334120312 12.076518341740975 162 155 149 1.4175882742562391 16 5736 1 2211 7 5002
4575 -3.6018675570221403 2.426060513462529 8.9713339969040966 202 194 191 0.40857533761657949 16 6389 4 4911 3 6310 1 2759 13 1086
4721 -4.0730327015459942 2.1896420308468105 9.6034548436758946 187 178 173 1.6493926144195667 3 7500 8 9418 4 5873
5238 -0.45409679899439248 2.4859763125849086 9.3499074361801195 125 120 117 0.50321484323621002 3 4932 16 4981 1 1667 2 3005
4577 1.3884117515955183 1.6560372322875456 10.852467150016517 171 156 132 0.46234776716922571 3 5822 16 5954 4 4959
5747 7.1967776472722491 4.7820411063940833 22.231375190291669 48 53 49 2.0188494767947742 16 8410 1 5039 12 5238
4578 -1.6969804504508872 2.1951234704819731 9.5669441556827621 189 179 176 0.5603991432594625 3 6104 4 4973 1 2711
4725 -3.5269429161632728 2.1135737510570141 9.5315963805651638 204 211 228 0.060531516422925938 5 7884 4 5886
4580 -3.6585157062798763 2.5299391118263856 8.7893562211226364 137 122 115 0.53091018708791482 3 6394 16 6484 4 4987 1 2806
4581 -0.54073375363930587 2.0186891231139454 9.9300014223965523 172 161 143 0.62195003195020693 16 7082 4 5000 1 3557
7799 -1.1524768070697275 -1.8501618048116617 14.305019194999748 204 185 159 0.54018725553318259 1 3812 12 2940 10 2072 9 2112
4582 -0.54170572683643836 2.0184326078058175 9.9387778902238146 172 161 143 1.0968869402283268 16 7081 4 5001 3 6920 1 3558
5236 0.23731068798600738 2.5095424774252897 9.8947524153664457 66 64 76 0.8264934786487137 3 4835 16 4881 1 1665 2 2745 11 1948 13 1776
4583 -7.1437901622063631 4.3931251030599183 12.965057718314931 102 94 99 1.2367435310070933 5 6536 4 5003 13 2864 12 3600 10 1499 9 1450
4729 -1.5138482927623542 1.9176857969338468 10.121196403817033 190 179 173 0.8896649228489989 16 7667 4 5908 3 6896 11 4311
4584 -2.5622319920086776 2.3706977381235084 9.1272221135450575 129 111 104 0.212942644037038 3 6259 16 6335 4 5006 1 2767
5246 -2.3431707698836073 2.5934578178971526 8.7644937049915956 186 174 162 0.54329233611589434 3 5178 16 5229 1 1688
4585 0.055544386876846728 1.9275178613926607 9.9583407230505365 180 165 146 1.3658714814142936 3 6907 16 7072 4 5022 11 4357
5755 -3.9364245434175849 2.4993497694694304 9.0150122997832867 208 199 193 0.58811295607339831 3 8484 16 8767 1 5125
4586 -2.650757849236872 -5.0773345168252098 13.636285512532776 159 170 156 0.90587377236235278 5 6871 4 5044 13 3266 9 2033
7288 -6.8214708252413123 1.988537211135295 12.256739831012753 213 215 228 1.4914367444794976 2 6515 7 5326 10 910
4587 -0.37326032536592868 -3.4846744166135708 15.86169592956262 46 47 49 0.64709157770413039 5 6885 4 5053 1 3783
4733 -6.9814850002551854 3.9223553771704514 12.997137495415695 194 193 201 1.691693976567985 4 5917 1 4176 13 4214 16 7844
4588 0.21204207199940572 -3.3462434417218527 15.544036341422506 125 111 85 0.56677790171280762 5 6888 4 5055 1 3785
7282 -1.4429070990820572 0.57004799851418075 12.863539658248463 95 85 76 0.80520196581756576 3 656 7 4934 16 717 12 390
4589 0.076796463090724396 -3.2634684695689851 15.33824204435701 63 62 60 1.093367807502464 5 6887 4 5057 1 3067 11 3931
4591 -5.1480135027035239 -0.67329143470823682 10.804543969556947 197 199 211 1.7077958170610372 16 7408 4 5077 13 174
4592 -0.83495769674929299 -1.4795009616017425 14.50349071699284 165 147 104 2.005420081078177 6 7342 4 5097 2 7167
5190 -3.1373632678771579 2.4641131596053611 8.7568727732220442 128 121 115 0.63398322334075596 3 6353 16 6448 1 1549
4593 0.11054962401956131 -1.6417933823974038 15.097761636039646 172 152 103 0.93145969942530749 5 7634 4 5106 2 7162 6 6630 7 5721
5699 9.2961799190360139 2.0214960185154593 15.955945952503349 180 187 203 1.9129970325782435 3 8099 16 8340 1 4794 2 8943 11 5453 12 4919 10 4352 9 4254
4594 -3.0380658141558468 -0.37607906108532052 15.058128161494356 159 141 117 0.79246295802470668 5 7662 4 5143 1 3169 13 3999
4595 -4.1572433879103521 -0.0017980136898977973 14.216645450822281 174 160 134 0.6385160448969297 5 6954 16 6777 4 5149 3 6585
4677 0.35088760740698061 -3.7470069561394452 16.242718558849059 134 117 97 0.64450756796881803 5 8014 4 5591 1 4223
4596 2.1012173327554584 -1.4337387969312791 15.808368817952033 57 55 54 0.88090399355107973 16 3569 4 5153 3 3439 1 230 2 212 11 309
7751 10.556245005169005 0.66993381269607233 14.456290310075136 114 54 55 0.78352920774266055 13 3174 10 953 9 834
4598 -4.3960233764491115 0.28170398262246077 13.689256906828613 131 115 90 0.45455584430842988 3 6607 4 5162 1 3203
5188 -2.5308321845375499 2.4316090943382775 8.9836092223400676 122 105 98 0.62293685889485029 3 4970 16 5052 1 1544 2 5596
4599 2.5388752721899812 -1.3309209414231205 16.722317832309322 199 182 162 1.0685580811338424 3 5368 16 5520 4 5168 1 3144 8 7878 11 2789
4681 -4.413313030631218 -0.15547230943746307 14.326444785461236 119 99 66 2.1741708096407142 5 7650 4 5643 1 3173 3 5423 11 4717 13 2366 13 3983 9 2199
4600 -4.2222553272587451 0.43180143638753032 10.46358557468891 147 130 120 0.86434091672400837 3 7243 5 6969 16 7477 4 5170 13 3351 10 476 9 2197
5198 -0.26464079014027264 2.338989128831428 9.489301334961203 153 146 138 0.49427167394506366 3 4769 16 2469 1 1571 2 2683
4601 -3.862451043500287 0.4999100395457024 12.659106296408495 63 78 78 0.93423587209908376 3 6628 16 6813 4 5186 1 3220 11 4030 13 3382 10 535
5707 -1.3960882335364992 2.3022597939130343 9.316117809891626 194 181 167 0.8377166046925828 16 8444 1 4815 2 9050 11 5435 12 4572
4602 -2.2769830437262311 0.13460968373171314 13.727800228983071 175 172 167 0.54027666444186828 5 7701 4 5188 1 3881 13 4031
7240 2.3096935554747926 0.080267073610690423 13.774878038343397 122 105 94 0.52016719215114327 3 519 16 505 7 686
4603 4.3343844809849479 -1.3922585887048065 17.347096490763185 25 13 12 0.21001822342098442 14 6757 4 5192 15 6675
4685 -2.3986104753458615 -0.093774220522126472 14.074699120043215 182 174 163 0.65137611518873828 3 7214 16 7438 4 5666 1 3872 11 4732
4604 -1.2208549926905672 0.13801896001452713 13.580397808248536 130 118 106 0.79742766488182149 3 5466 4 5213 7 5824
7234 4.0836911083312 -1.6722254983693345 17.902876458034754 211 194 175 0.34550913814324619 3 245 7 264 16 216
4605 -3.5711703726804247 0.74907798208919119 11.996961201794051 179 165 139 1.4826017965613438 5 7711 4 5216 13 3398
4606 -1.8557189379302335 0.36988232325922066 13.476307860253977 74 67 64 0.82303162200233526 5 7043 4 5218 1 3222 3 6618 16 6801 13 2476 8 6636
5196 -2.417563985165454 2.4597537080267902 8.9990705281946681 189 178 166 0.71007527799715486 3 4995 16 6392 1 1565 11 1741 13 1373
4607 -6.894322818844012 1.6567542387842451 12.132871610388882 184 188 200 1.6550144511072116 3 7368 4 5232 1 3964 2 8636 11 5289 13 4030 7 6910 10 3203 9 3195
4608 -0.92067481494865211 0.30919926608979909 13.200864892206294 17 16 14 1.2940630313176107 3 6613 5 7061 16 6797 4 5237 1 3229
8125 11.653183702272393 -7.6534793617339645 12.38213906392512 151 134 108 1.6478307263953049 10 4487 11 5547 9 4381
4610 -3.7321565174572529 0.98018534537545421 11.698268541210032 83 123 97 1.1228146327710231 3 7729 16 7518 4 5240 1 3933
5554 -1.0415893674797561 2.6166071676028237 8.9224615375247787 168 162 162 0.6353684198473033 16 7269 1 3707 11 4519 12 2535
4611 -6.948071130389728 1.7611488461426477 12.201683624026343 188 190 202 1.605379229731976 3 7378 16 7604 4 5241 13 4034 7 6925
4614 -2.4350360085676153 0.83779277564196708 12.235172261835405 159 46 47 2.286394766235007 16 6848 4 5256 1 545 2 8095 11 2901 7 6834
7606 0.58619261058022065 2.4428781828695896 10.068896420984624 145 129 106 0.51184895955864584 3 7917 16 8166 12 4599
4615 -2.4350360085676153 0.83779277564196708 12.235172261835405 159 46 47 2.286394766235007 16 6847 4 5257 1 546 2 8096 11 2902 7 6835
8123 -7.3599641505707325 3.9221161984150545 13.389606842257772 0 0 0 0.6907108839004541 1 4832 16 8482
4616 -5.4423267422507342 1.5143777072962614 10.869883395559038 183 176 170 0.57221735024931131 3 6784 4 5263 13 2462
4618 -2.5023125392120353 0.98582158704435752 11.852893413167058 40 39 45 0.53320157062868268 3 6680 6 7447 16 7517 4 5273 1 3948
5562 -1.2488285347034656 2.7515985982844415 8.7571068256734659 148 146 149 0.99622928215007511 16 6586 1 3752 11 3670 13 3787 12 2600 10 2558 9 2567
4619 -3.6317842782332113 1.2370115642854012 11.254857347151907 192 184 173 0.36774223116380406 3 7335 4 5275 11 4799
6079 9.66594309973609 5.6032469493282946 22.213818564255579 30 78 120 1.0401051634536169 3 4854 16 4819 2 5033 7 4491
4620 -6.9086274749625156 2.1094632404362721 12.321696585248429 148 143 147 1.9655336150495555 16 7655 4 5277 2 8259 11 4841 13 3424 5 7758 7 6628 12 3910 10 2431 3 7423
6073 -5.3508398399185841 1.8745305430690393 10.248588689426269 198 198 196 0.87287355543718015 1 913 2 4938 11 854 7 5475
4622 -1.616632989118405 0.88588540212861744 12.102430508475772 13 12 11 0.99774603095718373 3 6675 16 6859 4 5281
4623 1.5662521346594882 0.23566927139679 13.383621535829791 78 68 59 0.49246981736097645 3 6608 4 5284 2 7276 7 5837
8077 -1.3561226341091661 6.8741014748688816 19.166141630190147 28 17 16 1.4176052662457936 10 1899 14 6518 9 1903 15 6470
4626 -0.81755299770196799 0.98136099373125607 12.118526328245462 54 50 47 0.25981935495644753 5 7150 4 5311 11 4139
5506 -5.0068704874701622 1.8495890554494943 10.12353379264569 196 196 197 0.90003540623468614 3 6886 16 7064 1 3438 11 4193 13 2527 10 832
4627 -1.5436455950527834 1.1341836001949095 11.645406775235475 19 16 15 0.73566989453229314 5 7149 8 8866 4 5314
6023 -0.69328776899726641 0.98700611995922494 11.954400541225221 80 70 60 0.31134572373423658 3 3851 16 3995 2 4263 7 5037
4628 -4.7988380587412429 1.7961486871442347 10.199886048000836 173 172 177 0.9109858433777076 3 7425 16 7659 4 5317 1 4027 2 8253 13 3463 10 2340
6017 5.3516275082142188 0.025951222262394547 14.557885992142753 169 162 146 1.8188401423475054 5 6178 2 4013 4 3278 11 683
4630 -4.9904350767524122 1.8930243682237509 10.05505580509096 183 181 184 1.1078777493937051 5 7141 4 5323 11 4855 13 3467 7 7015 9 747
7558 10.218141842590969 4.8721522353059861 22.002829896903673 56 41 34 0.59180118982201957 3 6094 12 3630 16 6147
4631 -3.6819102763669864 1.6328578660498758 10.008685074110675 164 159 155 2.1023271017345677 5 7798 4 5330 1 2449 2 7577 11 857
8075 -1.4686244486842193 6.8620426188426356 19.190288845293964 64 50 41 0.89712168897982691 14 6508 9 1897 15 5840
4632 -4.9357737859131987 1.9475218495629587 9.9520450577116311 184 180 181 0.39342272328406303 3 7451 16 7691 4 5335 1 4055 13 3470 7 7030 2 8731
5514 -1.2387737066256217 1.8831273301217732 10.288473737774646 192 180 157 0.41208833276277324 3 6891 16 7056 1 3520 11 3256
4635 -0.36363015006571009 1.1490732650251487 11.651925836282047 178 163 140 0.52573352999950829 5 7829 16 6893 4 5343 3 6711 1 3347 2 7404 11 3015
6031 9.5253621612512323 1.9352120470582628 15.36574007143388 166 157 181 1.4549096637354459 3 4088 2 4341 11 3506 10 1267 9 1158
4636 -6.9084625046274812 2.8466716557194482 12.345335264641694 193 192 197 1.3416012513666904 3 7512 16 7755 4 5349 13 3508
6025 0.5819546649752253 1.1591689458333148 11.857435007313219 180 160 130 1.0874234883099001 3 3925 2 4300 7 3675
4638 -4.4512707507489555 1.9659977640323993 9.7994412677027913 199 193 193 1.057002442222339 3 6911 16 7089 4 5353 1 3488 2 8300 11 4233 7 7043 12 3226
4640 -2.1105125173070549 1.5586000001242997 10.921178064031004 197 189 186 0.37467558564931164 3 6791 16 6966 4 5358 1 3419
8029 -6.965460330493972 -0.40460259665535614 11.903507845855662 172 168 156 0.80787289960738151 4 6910 10 5282 9 5159
7372 -2.6867039265775365 1.3432935991466759 11.198686212502977 215 200 181 0.83346273231806389 2 8591 7 7179 12 3883
4642 -0.89006822648545814 1.3998114303785572 11.319634988611313 182 164 141 0.37315154166978842 16 6939 4 5371 12 2053
6349 9.8259996725365433 5.066938175009887 18.336307747846725 184 205 255 1.4851691080466913 3 8543 16 8826 2 9454
4643 -3.7647945103928437 1.8930633681474263 9.6383509355461854 193 206 225 0.89931259871439251 3 7861 4 5373 1 4073 11 5356 10 3254 9 3229
6342 6.6798491523855867 5.8630023436775458 20.363249405194313 183 199 217 1.3265395067526857 16 8766 2 9374 3 8490
5975 -1.6685962876709777 2.3272678157327138 9.3206619658021239 83 59 44 0.13286592478898285 3 2539 16 2535 2 2886
4644 -1.703710720408689 1.5649184548946364 10.912832304216717 193 180 164 0.51372354415698773 3 6795 16 6969 4 5376
5969 -0.91458026042153684 2.3168690677466186 9.3415554538599999 142 120 97 0.31644902503593603 3 2502 16 2493 2 2781
5312 -2.7184311376268089 1.420786855766152 10.969814315472883 192 184 173 0.35010708129675605 3 5739 16 5893 1 2375 11 3005
4646 -0.77908116593167132 1.4117969372165604 11.385699380135634 186 170 147 1.2383595315343363 3 6763 16 6940 4 5378 2 7456 11 3092 7 6531 12 3183
7510 -0.21473927228834591 2.7004158307186747 9.5794114203417031 106 96 86 0.77275114978826276 3 7094 16 7246 12 2565
6337 1.3758521034884683 -1.926619878924994 17.662128695638078 212 203 196 0.7482266618416733 3 8407 16 8687 2 9287 11 6040
4647 5.8578206952368479 0.16023386206801507 14.327474574994367 74 69 76 0.3459269638782061 8 8864 4 5379
8027 -0.88967236085964096 -2.8317408596482898 14.98827210955236 209 212 217 1.2327558435634729 13 5447 10 5228 9 5105
6346 -1.2434340435151157 0.28912485376574026 13.771027480071165 62 61 59 1.7565439317242504 11 6176 7 7446
4648 -3.8864088930630829 1.9936670452263272 9.7915215196326706 203 209 227 1.1270140776539863 3 7469 5 7212 16 7701 4 5387 1 4084 11 5363 13 3514 10 2418 9 3245
4650 -3.7906116439636626 1.9636594179340567 9.6881075751578098 94 102 129 1.0634556637803618 3 7464 16 7699 4 5389 1 4082 11 5361
5977 -6.8587431709326916 2.8983694196315906 12.650849640155489 130 127 136 0.5315515562994173 16 2340 2 2971 3 2284
5320 -0.59968035607378334 1.4049724550759928 11.279464066097947 179 166 150 0.59065623029842163 4 4646 1 2432 11 3100
4654 -0.97763360910073205 1.623609582368601 10.801308225424245 188 175 159 0.81278041816113644 3 6815 4 5410 1 3460 2 7507 11 4241 12 3232
4655 -7.2657027999939414 3.5249286641826871 12.65991195274759 192 191 200 1.7564490720312627 4 5420 9 3359
8109 -0.037863614787095351 -1.6897280975897031 15.017730480403394 0 0 0 2.5717114639804626 2 7157 4 5627
7388 0.91122812986915847 1.5428087978060381 10.844448713148266 178 157 128 1.2605260909162073 11 5917 7 7372 12 4865
4658 -0.33728306175521344 1.5953823572822503 10.87902700356587 148 136 120 0.70933726176275669 3 6808 16 6972 4 5435 2 7495
6365 -0.2559894491994556 1.5714310294260927 10.913949732313469 175 162 144 1.7858856632955189 6 8510 8 9839 5 8704 1 4738 2 8968 4 6609 11 5666 4 6456 7 7195 12 4849
5538 -1.6743096504129296 2.3587227875718337 9.2271776655612641 190 181 167 0.63010022628450157 16 7208 1 3618 3 6234
4659 -0.33728306175521344 1.5953823572822503 10.87902700356587 148 136 120 0.70933726176275669 3 6809 16 6973 4 5436 2 7496
6358 -0.041815894225622312 1.4196404773135398 11.105261353708025 139 113 86 1.9998212407435105 3 8623 2 9541 12 5548
6055 -3.2451790367070164 1.6065316836575363 10.110816547221436 150 144 128 1.2905034595016127 3 1487 16 1602 2 4698 7 5339
4660 -1.8693238843319238 1.9134621934619545 10.240632690488624 199 186 178 1.2448402196048227 3 7437 16 7065 4 5441 1 3515 2 7614
6049 -1.8230947953472234 1.6538838424219637 10.750348194467868 118 99 84 0.15010832604243884 3 1451 16 1536 2 4615
5328 -4.9627424367317614 1.8825163553262276 10.091094704835584 130 128 127 0.60045300059411255 16 6070 1 2496 11 894 13 646
4662 -1.4886707233068406 1.86282177504226 10.289120174367786 184 171 162 0.18849326636519184 16 7050 4 5447 3 6881
7590 11.258030110566319 -4.4768656364926409 13.126658387395125 125 129 141 0.64258482349237733 11 5168 12 4309 10 4145
6353 4.763045807895276 -0.37921212682383765 14.88054405684373 234 234 251 1.7280964964479075 3 8565 16 8856 2 9482 11 6249 7 7596
4663 -2.0420392777255607 2.0165255898698367 9.9342154260987279 188 177 171 0.49788409769601394 16 7088 4 5464 1 3533 11 3284
8107 0.23335114922064151 6.6556883004197545 19.652834828211816 147 153 165 0.83793119793008419 10 3620 14 7691 9 3558
6362 -0.61175824833032144 -1.3526368746046213 14.634563306343921 29 25 32 0.95397392979700624 3 7180 4 5631 2 7982 16 5503 14 5510 6 6634 8 7842 5 6931 16 6721 7 5735
4664 -6.8111334917537247 3.8396618303413539 13.089247901195973 197 195 206 1.9034213780008926 16 7275 4 5475 3 7122 13 3601 9 2654
5546 -3.0601031770768179 2.6339662456177724 8.534178753421644 208 201 197 0.79300468761811693 5 7522 1 3669 11 3527
4667 -3.6789640865216531 2.4217812656420068 9.0268424751697065 200 192 190 0.19513880540235293 3 7069 4 5508 11 4379
6063 -5.6362155367379536 1.7065469013292145 10.609792254187992 202 200 203 1.3048673467141596 16 1632 2 4796 7 5349
4668 -0.75901833500080851 1.9482928955850201 10.130083096091573 183 167 146 0.57224124123607234 3 6903 4 5521 12 2263
6057 -2.653809795113836 1.7316387579319215 10.403274032734876 202 189 170 0.42515860287037999 16 4359 2 4722 3 5850 13 865
5336 -5.6656354117858108 2.3529996371732524 10.775633118450999 187 191 202 1.4397041473921073 3 6064 1 2574 16 6181
4670 -1.6445726484951337 2.10361048009778 9.7533047679424527 187 174 167 1.2515198652369834 3 7489 5 7943 16 7712 4 5524 11 4355 12 2296
4672 -2.6489603965947168 2.3267272466940612 9.2309462976099645 124 107 107 0.57594677899398328 3 6210 5 7405 4 5539
4674 6.9333126085208212 3.6257641473845226 25.386800017721907 99 102 107 1.2332524415692883 3 7394 4 5555 16 7599 12 4582
6135 -6.1860567121899441 0.9829802835981104 11.883083674203771 161 162 164 0.55824062575026223 3 3835 2 6203 7 5025
4676 -2.6541589293766816 -5.2216168413178234 13.541513972930973 154 165 149 1.3853487356763914 5 7581 4 5585 1 3780 10 3679 9 2992 9 3622
6129 -2.9212744137702713 0.76802868209499819 12.305321963762157 161 35 41 0.77779614017455134 1 515 3 3764 16 3910 2 6131 11 536 13 522 7 4977 12 387
4678 -0.80885854360927012 -2.304485627327264 14.601072041776954 165 154 122 1.1671240137783241 3 7153 16 7370 4 5605 2 7950
8187 -1.3107051847655034 -1.5215166916025769 14.221224391257708 0 0 0 0.23675501360168202 1 182 13 245
4680 -7.4239436548538498 0.7055587027995649 11.484256603159945 175 176 180 1.8223734721215561 5 7635 4 5642 13 3307
4682 -4.2842671470857026 -0.1276060605936904 14.361669327556911 170 150 118 0.96295988026805424 3 7207 16 7436 4 5646 13 3986 9 3087 10 3092
5626 -4.6943729566314127 0.11534541044778943 9.7771836162596291 192 196 208 2.3012414807000736 3 7673 16 8280 1 4269 13 4408 4 5640
4683 -2.8017206896080875 -0.3764175271870806 15.024606812015312 148 132 109 0.90300521461419814 5 7666 4 5650 1 4267 16 7921 3 7664
6143 -0.62240152330236809 1.7296563108306144 10.646468683783679 202 187 166 0.85366900904332432 16 4337 2 6405 7 5341
4684 -2.2312026747227072 -0.14508426822827569 13.885803027034516 180 176 165 1.2346869134530878 3 7668 5 6977 16 7928 4 5665 1 4285 13 411
6137 -6.530363485568123 1.0422074549784759 11.801987419074131 182 179 174 1.7074365125492854 16 1011 2 6231 7 3607
4686 -3.843649735847583 0.33805928133675073 13.021326847109675 100 88 74 1.0842393451508721 5 7687 16 6798 4 5670 3 6612 1 3883 13 3375
8141 -1.9476789534563599 1.1048747881481271 11.540735913057011 14 16 15 1.5069421178783653 3 8689 10 5238 9 5113
5411 -1.2959957088258052 2.419066152080708 9.1357042092371774 193 181 167 0.45515424876988542 3 6282 16 6350 1 2838
4690 -0.79700603091857125 0.25047588032148005 13.431723642725791 15 15 15 0.67214962753065177 6 7813 4 5723
5570 -7.3892821392514296 -0.11974560100906748 10.103885790039497 247 245 238 1.4063361432330268 4 5610 1 3842
